# .PCD v0.7 - Point Cloud Data file format
VERSION 0.7
FIELDS x y z intensity
SIZE 4 4 4 4
TYPE F F F F
COUNT 1 1 1 1
WIDTH 1375
HEIGHT 1
VIEWPOINT 0 0 0 1 0 0 0
POINTS 1375
DATA ascii
12.818634 -10.162989 -1.5934771 42
14.171587 -10.419738 -1.6595397 60
15.117736 -10.290359 -1.6732302 68
11.984788 -7.5351067 -1.2523388 27
17.709927 -10.25591 -1.7512034 20
19.223099 -10.217805 -1.7970611 52
12.735495 -10.097075 -1.2952471 46
15.368931 -11.300079 -1.4623914 30
46.351162 -31.787382 -0.16537645 28
17.858816 -11.228169 -1.4932165 45
18.276054 -10.583754 -1.433447 57
20.39003 -10.838064 -1.4977108 52
28.537413 -22.625111 -2.2576463 46
29.420267 -21.631254 -2.1530912 50
29.42281 -20.027414 -1.9957341 17
19.197142 -12.069589 -1.2038732 31
46.363518 -34.338665 -0.33894905 62
12.068754 -7.5878973 -1.5132955 34
11.586197 -6.7096767 -1.3827173 25
11.924048 -7.5551238 0.00040295412 21
12.11813 -7.6780915 0.25406501 44
12.183947 -7.7197928 0.76641327 46
12.130804 -7.6861219 2.0337584 34
12.028709 -7.6214356 2.7766135 37
3.7043586 -2.3291161 -2.0304446 17
5.043026 -3.1707497 -2.0378377 15
7.6359148 -4.8009257 -2.077651 14
7.0566144 -4.4367132 -2.0670402 16
12.215891 -7.6804037 -1.7874447 68
11.423277 -7.1820788 -1.9101439 24
10.497062 -6.5997581 -1.976774 71
10.164955 -6.3909593 -2.0919256 40
9.136981 -5.7446613 -2.103761 12
8.3170614 -5.2291694 -2.0888908 13
46.354385 -33.730526 -0.16869326 20
12.021228 -7.4754252 0.042156052 71
12.069654 -7.5055389 0.29414991 58
12.601462 -8.4865065 1.3448157 14
3.6167696 -2.4175267 -2.0186584 17
4.9714098 -3.3229418 -2.0456088 15
6.9428973 -4.6406455 -2.0708935 15
7.5345402 -5.036088 -2.0875311 14
8.2003441 -5.4810982 -2.0972128 14
9.0187187 -6.0280843 -2.1144783 14
9.8940916 -6.6131668 -2.0733864 70
10.203606 -6.8200397 -1.9566195 48
11.310486 -7.5598574 -1.9258468 51
12.006583 -8.025115 -1.7889217 53
11.743054 -7.8489776 -1.4993595 50
10.842397 -6.6900139 -1.3157206 31
12.452293 -7.071733 -1.4355067 60
13.182436 -11.064666 -1.676489 55
46.40667 -31.252367 -1.9807539 74
28.594366 -22.441151 -2.1432021 70
33.387386 -24.294918 -2.3153594 15
33.107983 -22.296469 -2.1194382 20
12.077415 -7.5103645 -0.71334004 62
26.550512 -15.200844 -1.4423749 45
46.384769 -39.209423 -2.6896451 69
46.342278 -36.369797 -2.4326015 72
46.443298 -33.795223 -2.2041247 63
46.321198 -36.353252 -0.345938 57
12.103217 -7.5264091 -0.46244135 26
46.398582 -26.56426 -1.575189 72
46.38332 -39.208199 -1.6133257 71
46.30912 -36.343777 -1.3879191 80
46.402897 -33.765823 -1.1856678 82
46.388687 -31.240257 -0.98850578 81
46.42939 -26.581898 -0.62991309 68
46.352047 -39.181763 -0.53773868 78
46.441898 -26.374239 -0.62882924 72
46.460533 -33.560341 -2.199369 34
46.412445 -31.021326 -1.9763658 74
12.112402 -7.4736195 -0.4617922 69
46.400627 -26.350803 -1.5721254 65
46.391266 -38.938084 -1.6088635 72
46.303219 -36.078674 -1.3839581 82
46.384319 -33.505287 -1.1821963 82
46.387726 -31.004805 -0.98617208 83
12.141296 -7.4914474 -0.2100158 57
46.330242 -36.099731 -2.425339 70
46.365986 -38.916862 -0.53632009 76
46.305828 -36.080708 -0.3448793 58
46.348629 -33.479507 -0.16824493 22
12.108522 -7.4712257 0.042368419 65
12.071956 -7.4486637 0.29357135 71
12.611132 -8.429183 1.3427002 36
12.250192 -8.1879377 2.8730559 15
3.6403041 -2.4149153 -2.0270782 16
12.073973 -7.4499083 -0.96281409 76
14.362767 -10.374916 -1.6211014 14
15.271169 -10.207101 -1.6250247 67
12.057683 -7.439857 -1.212249 32
17.873041 -10.150146 -1.6966732 57
13.282381 -11.148553 -1.3820277 33
13.241607 -10.317741 -1.2868453 47
15.01425 -10.845507 -1.366567 37
17.359213 -11.60271 -1.4779624 14
13.20289 -10.287574 -1.5791184 43
19.177019 -10.890667 -1.4303814 54
28.246223 -23.708269 -2.2861149 44
28.691427 -22.355927 -2.1446152 87
29.25359 -21.131119 -2.0235095 37
33.112549 -22.131935 -2.1147714 24
12.083157 -7.4555745 -0.7121371 70
26.610357 -15.112019 -1.4427518 56
46.398918 -38.944504 -2.6825657 69
28.600439 -22.607685 -2.1495602 66
12.029091 -7.5386682 -1.2146368 56
12.384566 -7.1480722 -1.1802436 66
14.272958 -12.150827 -1.4939191 47
12.759376 -10.08594 -1.2467813 38
14.133829 -10.360467 -1.2929633 32
15.498173 -10.516095 -1.3256906 52
17.868507 -11.198178 -1.4312809 64
18.405642 -10.623221 -1.3783293 59
15.202782 -12.942393 -1.2375402 20
15.130301 -10.266483 -1.6176203 66
29.511206 -21.632326 -2.0517313 50
31.654942 -21.47892 -2.0311911 10
26.448843 -15.265468 -1.439737 25
46.402802 -39.503201 -2.6986716 65
46.334187 -36.625519 -2.4388738 73
46.408863 -34.01857 -2.2081134 78
46.409763 -31.490482 -1.9855666 28
46.393555 -29.074566 -1.777616 86
10.165551 -6.8977613 -1.958509 48
7.5358324 -4.9989829 -2.0830407 14
3.6298287 -2.4630897 -2.0354979 16
4.948091 -3.3575678 -2.0456088 16
6.9231815 -4.697722 -2.0747452 16
7.5056491 -5.0929427 -2.0893269 14
8.1877813 -5.5557885 -2.1038694 14
8.9959097 -6.1041265 -2.119071 15
9.7955103 -6.646678 -2.0623996 56
46.405998 -26.784023 -1.578606 69
11.280375 -7.654201 -1.9297721 38
11.730182 -7.9594069 -1.7559682 65
14.518635 -9.8514519 -1.8625793 41
12.079962 -7.5705485 -1.4723234 59
16.153061 -9.3231125 -1.8697113 20
11.968083 -10.188671 -1.5310266 21
12.908935 -10.204162 -1.552436 56
14.174332 -10.390156 -1.6079777 54
14.210513 -10.340615 -1.6079777 49
10.163357 -6.844583 -1.95347 51
9.9995852 -6.7342925 -1.7065853 27
11.89289 -8.0093241 -1.7761338 17
11.712287 -7.8876987 -1.498937 33
10.802086 -6.7173138 -1.3136654 39
11.778179 -6.7433877 -1.3604788 27
13.192382 -11.151737 -1.6826955 32
13.019661 -10.218044 -1.5614555 49
9.8578749 -6.6388583 -2.0706398 59
15.29163 -10.29818 -1.6310185 29
12.021487 -7.4755864 -1.2112256 38
17.872097 -10.232277 -1.6999645 27
14.647205 -12.381507 -1.5285672 14
14.96562 -11.745243 -1.4584169 36
14.231194 -10.355663 -1.2985572 25
15.524858 -10.455245 -1.3248432 33
12.325794 -7.6648164 -0.98503172 64
46.317017 -33.951244 -0.16898823 20
46.398415 -39.499466 -1.6186379 76
46.313736 -36.609356 -1.39188 78
46.413769 -34.022163 -1.1889738 81
46.411736 -31.491821 -0.99133444 82
46.399406 -29.078232 -0.80723047 86
46.419456 -26.79179 -0.63104397 71
46.370327 -39.475555 -0.53954738 76
46.310127 -36.606503 -0.34680852 58
19.156208 -10.967457 -1.4316763 40
11.978115 -7.506722 0.042097058 63
12.229761 -7.6644263 0.29869583 65
3.6293757 -2.4443238 -2.0304461 17
4.9566417 -3.338161 -2.0443139 16
6.9363179 -4.6713586 -2.0737822 16
7.5136819 -5.0601802 -2.0866327 14
8.2038794 -5.5249882 -2.1030374 14
8.9748278 -6.0441775 -2.1091204 25
7.5509672 -4.9334583 -2.0776525 14
46.328186 -35.581135 -0.34318537 56
46.333565 -32.978832 -0.16734825 20
12.259531 -7.4467306 0.042710576 61
12.219369 -7.4223356 0.29588562 31
12.669671 -8.3409357 1.3427002 13
12.336569 -8.1216459 2.8799448 68
3.6631484 -2.3934107 -2.0304461 18
5.0217752 -3.281049 -2.0520835 15
6.9911122 -4.5676856 -2.0708935 16
46.356129 -38.360168 -0.5330928 75
8.2540159 -5.3927846 -2.0963807 14
9.0616283 -5.9204264 -2.1098857 13
10.081563 -6.5867853 -2.0981071 58
10.294305 -6.7257771 -1.9603986 61
11.349245 -7.4150062 -1.9191177 29
12.03679 -7.8642035 -1.7810521 17
14.648396 -9.5704575 -1.8575113 10
11.661582 -7.0279217 -1.4061474 62
43.37867 -30.875641 -2.0431957 48
28.214203 -23.347603 -2.2702725 44
28.910135 -22.203722 -2.1493247 80
32.641079 -23.232983 -2.2465966 25
33.836761 -22.275808 -2.151046 12
18.308228 -11.120782 -1.0746216 16
26.777998 -14.960953 -1.4461435 18
46.395672 -38.392891 -2.6668136 79
46.34341 -35.592827 -2.4129593 77
16.222795 -8.989624 -1.8593351 15
46.40752 -30.551479 -1.9670234 74
46.350773 -28.154158 -1.7607381 66
46.400127 -38.39658 -1.5998329 67
46.328793 -35.5816 -1.3772622 82
46.402069 -33.027592 -1.1767411 77
46.409302 -30.552652 -0.98207051 83
46.359913 -28.159708 -0.79962075 47
46.45031 -25.95183 -0.62647313 72
46.409966 -27.968807 -0.79879493 71
43.375191 -30.645615 -2.0379798 53
46.403446 -30.317144 -1.9623522 81
46.400826 -27.963301 -1.7589206 81
46.425724 -25.725864 -1.5637597 48
46.376305 -38.104912 -1.5944144 69
46.338234 -35.332375 -1.373867 85
46.42889 -32.803112 -1.1745095 84
46.405182 -30.318277 -0.9797368 82
46.346603 -35.338757 -2.406687 65
46.439159 -25.733307 -0.62510651 73
46.344494 -38.078773 -0.53142595 77
46.331238 -35.327038 -0.34229136 57
46.337326 -32.738422 -0.16694711 24
12.371098 -7.4555068 0.043005537 63
12.361659 -7.4498186 0.29869583 10
12.688702 -8.2901201 1.3416425 26
12.354983 -8.0720901 2.8776486 53
14.638293 -10.342404 -1.3224047 34
12.405538 -10.193073 -1.5639981 27
13.797576 -10.520599 -1.6369927 45
14.434837 -10.198658 -1.6170913 32
15.760815 -10.297239 -1.6655722 14
11.131364 -6.7083893 -1.1119622 26
18.47349 -10.236793 -1.7434118 90
13.968348 -11.477144 -1.4408343 65
13.288667 -10.132564 -1.2810345 40
6.9590545 -4.6163821 -2.0708935 15
17.329748 -10.443805 -1.3732984 37
28.243088 -23.205885 -2.2660642 47
29.01922 -22.126883 -2.1516795 66
32.7122 -23.111992 -2.2459247 28
35.218452 -23.009596 -2.2337775 18
12.167411 -7.332756 -0.71253806 31
24.733139 -13.70543 -1.333088 35
46.387375 -38.114006 -2.6586721 79
11.993264 -7.3424296 -0.70532048 56
14.801196 -11.450132 -1.4345621 43
14.218854 -10.19562 -1.2909024 34
17.502686 -11.610417 -1.4867202 32
12.082887 -7.3972964 -0.96145934 82
18.950603 -10.674774 -1.4107 47
28.184668 -23.489397 -2.2744803 48
28.769287 -22.255638 -2.1446152 92
32.748032 -23.481762 -2.2595878 28
33.113049 -21.965429 -2.1098924 20
13.642839 -11.370163 -1.4154044 35
26.638578 -15.005311 -1.4414328 36
46.384163 -38.656944 -2.673893 63
46.342167 -35.849751 -2.4193966 68
43.37133 -31.099079 -2.0479515 53
46.410522 -30.786207 -1.9716946 70
12.155466 -7.4417295 -0.46244135 58
46.401752 -26.137651 -1.5690619 43
46.397892 -38.668388 -1.6044012 66
14.614372 -9.6944771 -1.8617347 6
4.9861326 -3.3076599 -2.0469036 16
11.903981 -7.2307658 -0.94520253 65
8.203126 -5.441627 -2.0930526 14
9.0200768 -5.9835448 -2.1098857 14
9.9532385 -6.6025505 -2.08094 61
10.181267 -6.7538114 -1.9478011 48
11.317005 -7.5071945 -1.9224821 16
10.155573 -6.7367673 -1.5095551 37
17.459787 -11.494401 -1.4796575 71
12.07374 -7.3916974 -1.4620477 44
12.414484 -6.9930625 -1.4283231 27
13.483994 -11.237781 -1.7098484 35
13.317466 -10.302341 -1.5885136 45
9.3974724 -6.738502 -1.0578771 28
15.502606 -10.28368 -1.6458273 25
12.086979 -7.3998022 -1.2125901 66
18.234854 -10.271602 -1.7276129 54
13.280704 -10.2 -1.57987 46
10.005848 -6.5872688 -2.0871203 61
10.257567 -6.7529831 -1.9578792 50
11.326601 -7.4567561 -1.9196783 53
11.999319 -7.8996253 -1.7795767 57
14.661412 -9.652153 -1.8634242 27
12.109671 -7.3557038 -1.4632808 66
16.250385 -9.0791988 -1.8661195 12
12.265599 -10.150021 -1.5508095 84
46.4035 -33.273262 -1.1797167 77
14.318019 -10.191237 -1.6079777 13
11.821032 -7.7822533 -1.2519876 56
11.049973 -6.7120314 -1.1061634 23
18.451563 -10.308992 -1.7447283 33
13.743884 -11.373311 -1.4217619 56
14.989738 -11.512572 -1.4489361 36
14.748351 -10.497534 -1.3356534 40
46.324497 -35.836082 -1.3808459 82
8.2318726 -5.4194131 -2.0955489 14
9.050745 -5.958499 -2.1121821 13
46.409023 -30.785212 -0.98433346 82
12.170784 -7.451108 -0.21007481 62
46.43959 -26.158964 -0.62755692 77
46.344849 -38.624184 -0.53451139 75
46.317596 -35.830746 -0.34403235 55
46.370949 -33.24992 -0.16790278 20
12.117472 -7.4184699 0.042309429 70
12.627198 -8.3763008 1.3412899 20
11.478724 -7.6144695 1.950763 11
12.29833 -8.1581488 2.8776486 32
3.6547718 -2.4061835 -2.0304461 16
4.9976473 -3.2902348 -2.0469036 16
6.9913387 -4.6027355 -2.0757082 17
7.5532355 -4.9726477 -2.0830407 14
12.121758 -7.4210939 0.29414991 71
46.431686 -27.890287 -0.63773686 80
46.373318 -40.895226 -0.5478121 80
46.298519 -37.928787 -0.35163298 52
12.29943 -7.3880496 0.08479102 66
12.3545 -7.4211287 0.34028912 7
12.04328 -8.4825315 2.8722892 57
3.5980606 -2.5156081 -2.0371835 16
4.900732 -3.4263258 -2.0456102 16
6.872829 -4.8050489 -2.0795615 17
7.4561749 -5.2128749 -2.0956149 14
8.1318607 -5.6852574 -2.1096952 15
8.9484205 -6.2561269 -2.1282575 17
9.4466162 -6.604423 -2.008153 67
9.7153797 -6.7923203 -1.8898541 29
11.195131 -7.8268371 -1.933699 26
11.59839 -8.1087618 -1.7530186 16
14.409015 -10.073713 -1.866382 33
46.312439 -37.940189 -2.4722176 73
17.536591 -11.421205 -1.4204445 29
17.413328 -10.459818 -1.317474 55
28.296345 -24.953751 -2.3388419 56
29.091028 -22.115067 -2.0490448 59
32.725224 -23.049341 -2.1253793 37
30.40971 -19.80508 -1.8208437 28
12.224336 -7.3429427 -0.67209172 58
46.371681 -40.893784 -2.7379644 38
46.400986 -30.219721 -0.81631637 89
46.387222 -35.263584 -2.2360358 75
43.447701 -30.60145 -1.881386 50
46.405033 -30.222355 -1.7980008 85
46.401051 -27.871883 -1.5947498 71
46.412758 -40.930008 -1.6438189 73
46.320473 -37.946774 -1.4117807 76
46.385994 -35.26265 -1.2038528 86
46.404381 -32.683914 -1.0032164 79
46.325459 -37.681393 -1.407914 74
26.813189 -15.978935 -1.4715823 18
46.381863 -40.615829 -2.7301769 45
46.298874 -37.659767 -2.4644597 72
46.391987 -35.012352 -2.2303596 73
43.43959 -30.369434 -1.8764318 47
46.396084 -29.986403 -1.7935866 85
46.370979 -27.634012 -1.5903902 69
46.407944 -40.638668 -1.638613 72
37.675571 -24.350248 -2.2508931 26
46.365154 -34.992104 -1.2001333 86
46.406742 -32.443817 -1.0008119 85
46.402054 -29.990261 -0.8144877 84
46.425682 -27.666613 -0.63632321 82
46.392406 -40.625065 -0.54635805 80
46.287891 -37.650837 -0.35055074 51
46.330158 -34.965691 -0.17080666 12
12.445406 -7.416739 0.085614465 61
13.919888 -11.322623 -1.375538 95
15.935843 -9.4967957 -1.8597355 11
12.606387 -11.039316 -1.63227 44
13.800142 -11.225221 -1.678333 38
13.967474 -10.541453 -1.6010528 46
14.606685 -10.211907 -1.5767217 14
10.389651 -6.7150831 -1.0584092 26
11.242519 -6.6999021 -1.0801848 27
14.473887 -12.674649 -1.5333366 26
15.124255 -9.7751055 -1.8599274 23
13.382817 -10.100212 -1.2370259 34
15.166713 -10.603431 -1.3098717 27
17.522722 -11.32526 -1.4161094 22
18.567558 -11.065116 -1.4018966 46
28.341227 -24.818003 -2.3353765 56
29.67907 -24.141178 -2.2557647 39
29.190359 -22.030222 -2.0506127 64
32.733459 -22.884615 -2.1207125 25
28.238916 -25.078884 -2.3413174 46
11.828594 -7.7626934 -1.2105448 34
11.792246 -7.1395326 -1.1377853 54
24.903294 -22.116549 -2.6547923 11
13.788204 -11.376376 -1.3703388 35
14.88294 -11.396313 -1.3830556 51
15.03049 -10.665187 -1.304504 34
17.479933 -11.4714 -1.4190897 64
17.393782 -10.530874 -1.3187687 53
9.4852972 -6.7305384 -1.0288014 26
29.497486 -24.337622 -2.2548225 44
28.975601 -22.187342 -2.0463572 79
32.683659 -23.191174 -2.1279249 42
37.381081 -24.531582 -2.243475 35
12.256736 -7.4207482 -0.67529494 38
46.387005 -41.196041 -2.7473447 39
46.318443 -38.21608 -2.4796455 72
46.384438 -35.517632 -2.2418654 74
9.4712133 -6.7205448 -1.8514317 32
9.5311232 -6.6140928 -2.0211999 68
3.5744936 -2.5364673 -2.0338154 16
4.910645 -3.4845474 -2.0598545 21
6.8486161 -4.8596539 -2.0824504 16
7.4068847 -5.2557793 -2.0920224 14
8.1079264 -5.7532105 -2.1138554 14
8.9397497 -6.3434396 -2.1366773 41
9.3038654 -6.6018019 -1.9875524 70
43.529709 -30.8871 -1.8895961 47
11.117607 -7.8887606 -1.9297736 25
12.603383 -8.9430084 -1.9143429 14
14.29941 -10.146441 -1.8613138 29
15.138807 -9.93503 -1.8702031 29
11.310299 -6.8477468 -1.3253607 26
12.290874 -10.91557 -1.601238 60
13.543279 -11.174295 -1.6565362 36
13.507695 -10.343261 -1.556578 43
11.743554 -7.0541515 -1.3732508 58
8.0927725 -5.7000904 -2.1047027 14
8.9522076 -6.3054118 -2.1343811 30
9.3719568 -6.6010523 -1.9971659 70
9.5527439 -6.7283845 -1.8627695 31
11.15479 -7.8567457 -1.931456 33
12.592332 -8.8692427 -1.9079491 33
14.33474 -10.096464 -1.8613138 53
11.812637 -7.6933637 -1.4558836 4
7.4219985 -5.2276473 -2.0911245 16
12.451325 -10.98056 -1.6171418 52
12.516326 -10.253767 -1.5265068 31
14.469965 -10.191707 -1.5657914 14
10.312715 -6.7165093 -1.0529515 28
11.191725 -6.7226839 -1.0775517 24
14.211244 -12.532573 -1.510132 26
13.661231 -11.191695 -1.3538239 37
13.309371 -10.117896 -1.2334929 41
46.37682 -41.186996 -0.54954988 83
46.422924 -30.465313 -1.8028045 87
46.378723 -28.079243 -1.597342 71
46.413109 -41.219223 -1.6489186 76
46.326538 -38.222755 -1.4160246 67
46.386452 -35.519176 -1.2070762 88
46.410694 -32.931332 -1.0058329 81
46.388844 -30.442949 -0.81796807 87
46.416164 -28.101912 -0.6388678 57
15.070888 -10.614952 -1.3047866 45
46.313934 -38.212357 -0.35276228 49
46.205605 -35.380699 -0.17125498 12
12.044313 -7.2921419 0.083214715 105
12.325099 -7.4621382 0.34019479 59
12.032808 -8.5381517 2.8768816 63
3.5684931 -2.5135274 -2.0253956 15
4.9073071 -3.4564874 -2.0533798 17
6.8591881 -4.8312459 -2.0805242 15
7.4781728 -5.1125121 -2.0866342 14
46.369114 -40.036186 -0.54277617 78
46.306213 -37.131588 -0.34871563 53
46.358097 -34.481449 -0.17001617 16
12.138846 -7.725997 0.29778516 9
11.960078 -8.2379179 2.8317213 14
3.6212094 -2.4757447 -2.0354993 15
4.9269681 -3.3684115 -2.0417254 15
6.9227676 -4.7328157 -2.0795615 16
46.414146 -27.222439 -0.63354295 80
8.1586475 -5.5777106 -2.1013746 14
8.955101 -6.1221967 -2.1144798 14
9.7071886 -6.6363521 -2.0486674 56
10.017498 -6.8484917 -1.9345752 53
11.263397 -7.7002358 -1.931456 14
11.633509 -7.953258 -1.7456409 47
14.56625 -9.9581928 -1.8731395 23
12.117378 -7.653038 -1.4801345 25
46.410786 -34.520638 -2.2196207 74
14.779659 -12.76121 -1.2103124 25
28.535372 -22.881733 -2.1566262 59
29.343447 -21.825899 -2.0506127 67
32.872688 -22.641941 -2.1194396 29
11.977886 -7.6235528 -0.71213859 48
27.32733 -16.027857 -1.4936281 29
46.376942 -40.042942 -2.7133629 63
46.301868 -37.128105 -2.4507599 72
16.027534 -9.3253984 -1.8589374 24
43.601166 -30.03142 -1.8743086 50
46.395184 -29.528675 -1.7855371 87
46.386875 -27.206446 -1.584381 76
46.406029 -40.068058 -1.6286261 75
46.319099 -37.141922 -1.3998035 74
46.393326 -34.507652 -1.1945957 86
46.404842 -31.962513 -0.99593246 85
46.390976 -29.525997 -0.81065327 91
46.404106 -34.264744 -1.1917855 82
46.389008 -39.77158 -2.7059295 63
46.340504 -36.894077 -2.4459729 75
46.402374 -34.263466 -2.213484 73
43.672726 -29.856489 -1.872893 51
46.393185 -29.300381 -1.7815125 82
46.384792 -26.988071 -1.5810817 74
46.399887 -39.780907 -1.6235265 75
46.301418 -36.862961 -1.395371 74
27.241512 -15.849995 -1.4859027 25
46.407173 -31.725863 -0.99359882 85
46.378777 -29.291281 -0.80864763 83
46.45702 -27.030096 -0.6328361 76
46.387108 -39.769955 -0.54135758 78
46.307236 -36.867592 -0.34775105 54
46.33337 -34.212513 -0.16948524 18
12.053296 -7.612566 0.042449545 18
12.050292 -8.4246931 2.866931 57
14.068696 -10.388414 -1.2903148 24
12.017072 -10.30294 -1.5418893 87
12.68319 -10.097856 -1.5295132 52
14.121956 -10.427741 -1.6061565 49
15.216073 -10.402436 -1.6306674 37
12.043138 -7.6061502 -1.2187315 41
17.593489 -10.236513 -1.6802173 40
12.943928 -11.097577 -1.3588245 16
12.724092 -10.130419 -1.2467828 52
3.612781 -2.50717 -2.0405514 16
15.458076 -10.567879 -1.3254095 40
17.579617 -11.102788 -1.4112324 64
18.323597 -10.66131 -1.3749642 64
28.363144 -24.317179 -2.3160684 36
28.583826 -22.757124 -2.1542714 94
29.47086 -21.761307 -2.0541966 62
29.41334 -20.108229 -1.8918216 16
12.017933 -7.5902319 -0.71294057 48
29.756941 -24.032412 -2.2552938 12
17.356884 -10.261704 -1.6644183 31
14.602291 -12.697307 -1.5422373 25
13.97484 -11.286492 -1.3770672 26
13.478649 -10.098883 -1.2426198 22
15.075787 -10.461709 -1.2988539 36
17.434496 -11.182152 -1.4058133 17
12.325009 -7.2868109 -0.92850822 59
27.623297 -24.019482 -2.2692835 46
10.470057 -6.7153525 -1.0642081 29
29.251102 -21.916224 -2.0494931 60
32.786888 -22.751997 -2.1190155 26
26.989182 -15.956412 -1.4781773 20
46.378613 -40.32782 -2.7216814 47
46.318115 -37.407524 -2.4585176 74
46.385963 -34.754333 -2.2242231 76
43.512489 -30.194826 -1.8750162 47
46.392784 -29.755198 -1.789432 85
11.199606 -7.7719049 -1.9297736 27
18.52729 -10.866561 -1.3930918 26
4.9406452 -3.4286165 -2.0572646 16
6.8863688 -4.7788148 -2.0785983 19
7.4647174 -5.1801491 -2.0929208 14
8.1291542 -5.641223 -2.1038709 14
8.9314976 -6.1979933 -2.1190724 15
11.992002 -8.1983376 2.8324869 11
9.9045382 -6.8732171 -1.9219778 28
17.540756 -11.164081 -1.4112324 38
12.640897 -8.7720623 -1.9059815 25
14.470234 -10.041496 -1.8697608 37
10.489551 -6.7278547 -1.2869498 28
15.955192 -9.4330101 -1.8581393 39
12.58476 -10.942999 -1.624512 62
12.683644 -10.243699 -1.5381567 39
14.07113 -10.542792 -1.6087083 44
14.841922 -10.299423 -1.5982294 31
14.152592 -10.526892 -1.6138119 43
10.07486 -6.9394307 -1.950322 36
11.220143 -7.7282705 -1.9286522 37
11.968559 -8.2437592 -1.8002355 80
14.544506 -10.018 -1.8748291 27
15.165275 -9.6521883 -1.8566391 21
16.053251 -9.4155149 -1.8657219 22
7.7924876 -6.728344 -1.0027086 10
12.657189 -10.149537 -1.5306406 57
46.404678 -40.350487 -1.6335133 74
14.91716 -10.274673 -1.6024605 49
16.182295 -10.299479 -1.6413684 11
17.53702 -10.285759 -1.6782423 41
14.534858 -12.549843 -1.5304759 51
12.682432 -10.169779 -1.2461711 46
14.185989 -10.551734 -1.3044468 20
15.391522 -10.6014 -1.322867 39
46.37767 -27.419075 -1.5873268 69
8.9530773 -6.1667786 -2.1190724 14
9.6190586 -6.6254883 -2.0349336 62
46.307381 -37.398857 -1.4033872 69
46.381405 -34.750916 -1.1974058 84
46.404709 -32.201828 -0.99833685 84
46.381897 -29.748213 -0.81230503 81
46.435902 -27.453501 -0.63514513 80
46.379997 -40.329025 -0.54454941 78
46.31012 -37.401066 -0.3497273 52
12.46089 -7.3671446 0.085543878 25
11.986084 -8.317667 2.8447337 28
3.6394389 -2.5068924 -2.0506551 15
4.9307652 -3.3963223 -2.0482001 16
6.9125996 -4.7613544 -2.0814872 17
7.4827538 -5.1540608 -2.0929208 14
8.1584635 -5.6194706 -2.1063669 14
46.339886 -34.71981 -0.17039371 16
8.8946905 -6.5000672 -2.1473947 44
8.0141754 -5.8566189 -2.1105285 15
7.3296361 -5.3563819 -2.091126 20
6.7832332 -4.9570904 -2.0834146 16
4.8462381 -3.5416048 -2.0533812 83
3.5475211 -2.5925491 -2.0388687 18
11.806084 -8.6909904 2.85851 64
12.196173 -7.6781054 0.085165977 24
46.299759 -39.578819 -0.35786909 49
9.04216 -6.6078324 -1.9511596 65
9.2233734 -6.7402573 -1.8211993 32
10.974406 -8.0198479 -1.9241675 15
12.458064 -9.1040516 -1.9113935 19
13.928334 -10.178473 -1.8313285 52
14.837131 -10.036195 -1.850064 48
12.060856 -7.5342593 -1.4255326 37
13.170384 -11.179328 -1.6298554 61
12.905201 -10.170865 -1.5033559 60
46.428673 -34.177803 -2.0410576 81
14.899855 -12.737073 -1.1555885 19
28.7654 -22.833668 -2.0593495 60
29.523598 -21.733427 -1.9465533 41
33.071617 -22.538927 -2.0081019 29
12.020541 -7.5675383 -0.66945523 47
46.30508 -42.591782 -2.7861066 18
46.340107 -39.613312 -2.5174458 72
46.364853 -36.803837 -2.2716286 83
46.375149 -42.656231 -0.5582757 80
46.406136 -31.626593 -1.823319 47
46.379002 -29.19751 -1.6146642 78
46.390038 -42.669926 -1.6743121 78
46.315048 -39.591888 -1.4365854 82
46.338966 -36.783291 -1.2223684 74
46.395756 -34.153572 -1.0182805 83
46.392498 -31.617298 -0.82764393 86
46.402687 -29.21242 -0.64560783 88
46.333958 -39.328957 -0.35706919 52
46.365349 -28.963415 -1.6106582 89
46.405849 -42.386383 -1.6695312 75
46.33102 -39.326466 -1.4328129 80
46.363434 -36.539627 -1.2196409 86
46.366161 -33.882866 -1.0150275 89
46.370068 -31.365526 -0.8252843 87
46.395824 -28.982452 -0.64409995 96
46.376106 -42.359215 -0.55650246 80
46.453335 -31.42185 -1.8208523 88
12.104166 -7.5613141 0.084342539 50
12.273978 -7.6673918 0.34170228 56
11.980088 -8.7547646 1.3134326 9
11.86488 -8.6705742 2.8653989 70
6.8067789 -4.9379439 -2.0853403 16
3.5565479 -2.5801511 -2.0388687 18
4.8708239 -3.5335574 -2.0585611 83
9.0874968 -6.5924292 -1.9559665 72
28.127733 -25.691494 -2.3616171 66
15.304109 -10.352066 -1.5809933 43
12.411568 -7.7533398 -1.2078949 45
14.002137 -12.789441 -1.5114051 29
15.114887 -12.829845 -1.5198922 41
15.060751 -11.869675 -1.414854 66
16.29114 -11.905126 -1.4282441 22
16.970978 -11.47956 -1.3906418 15
12.322728 -7.6978445 -0.94223493 74
14.154781 -10.343952 -1.5509844 54
28.10759 -23.8582 -2.1738179 47
28.66614 -22.592213 -2.0465825 79
33.907917 -24.77883 -2.2299621 12
33.080605 -22.376343 -2.0038917 22
46.282345 -42.273575 -2.7758412 24
46.353184 -39.345276 -2.5106785 67
46.361191 -36.537857 -2.2651854 81
46.434734 -33.932976 -2.0361035 81
37.491444 -29.97419 -2.6916537 30
16.315737 -10.351229 -1.5949701 32
13.903732 -12.878754 -1.5104513 33
14.846621 -12.781531 -1.5018482 51
15.067876 -12.046768 -1.4233919 20
15.832645 -11.740507 -1.3951906 46
15.40338 -10.576701 -1.2681741 46
17.789608 -11.286286 -1.3664199 59
27.892038 -25.835691 -2.3569138 45
28.557676 -24.585306 -2.2218566 44
9.7939939 -6.7250805 -1.0164541 28
34.654938 -25.697775 -2.2908442 20
33.012505 -22.667803 -2.009305 27
11.997426 -7.6115923 -0.66964364 39
46.337891 -42.921516 -2.7970798 35
46.325733 -39.881737 -2.5242133 74
46.364101 -37.067791 -2.2779186 80
46.418266 -34.42062 -2.0458705 82
43.836823 -30.100197 -1.7264661 53
10.937238 -8.1104221 -1.9275321 25
3.5439081 -2.628058 -2.0472884 16
4.8335562 -3.5843687 -2.0585611 78
6.7578173 -5.0112634 -2.0863035 16
7.3296356 -5.4352827 -2.1019025 15
7.9888082 -5.924078 -2.1146889 15
8.6630306 -6.4240327 -2.1022344 34
8.9736519 -6.6543674 -1.9463528 49
9.2109966 -6.8303652 -1.828128 65
46.384838 -29.427769 -1.6184348 74
12.371881 -9.1742516 -1.9079506 32
13.735524 -10.185431 -1.8152792 67
14.697824 -10.092238 -1.8414325 42
12.055013 -7.6481271 -1.4311197 42
12.068344 -11.17869 -1.6024032 47
13.046748 -11.23203 -1.6242183 44
12.696986 -10.151265 -1.4873158 54
14.114228 -10.466251 -1.5545101 42
14.269401 -10.504317 -1.5675559 52
10.952724 -8.0628033 -1.925289 31
12.451782 -9.1663103 -1.9153281 29
13.639657 -10.040743 -1.797963 53
14.795431 -10.083445 -1.8492421 44
12.051324 -7.5869174 -1.427528 47
11.776186 -10.831944 -1.5585705 107
12.005221 -10.262638 -1.490055 43
12.713622 -10.092022 -1.4851284 50
9.0630007 -6.6717176 -1.7941147 24
15.32716 -10.445826 -1.5871332 31
16.44623 -10.35368 -1.6041862 34
13.933929 -12.816646 -1.5088621 26
13.16617 -11.255058 -1.3278297 24
12.741498 -10.11415 -1.2002255 45
14.103018 -10.381838 -1.2395288 25
15.423717 -10.51163 -1.2668192 53
17.845785 -11.234754 -1.3677148 60
11.761852 -8.7218981 1.2961558 21
46.399223 -42.978329 -1.6800493 73
46.334148 -39.888985 -1.4414893 82
46.353977 -37.059696 -1.2261704 67
46.385487 -34.396313 -1.0206848 83
46.400551 -31.860552 -0.82976758 88
46.415264 -29.447069 -0.64721006 92
46.360954 -42.942879 -0.55990702 80
46.340172 -39.894169 -0.35925719 51
28.046694 -25.79763 -2.3623598 51
11.785137 -8.7391644 2.8608062 40
3.5413718 -2.6070676 -2.0405529 16
4.8368945 -3.560744 -2.0546763 88
6.7690148 -4.9830403 -2.0843775 16
7.3234501 -5.3911781 -2.094718 22
7.9968343 -5.886878 -2.1113608 15
8.6569452 -6.3728065 -2.0953455 46
9.0095177 -6.6323471 -1.9490995 63
7.4106913 -5.2974687 -2.0983102 14
12.115769 -7.4514842 0.084060214 75
12.081954 -7.4306874 0.33491203 78
12.099113 -8.7128286 1.3197792 9
11.274382 -8.1189318 1.9675831 16
11.896445 -8.566885 2.85851 61
3.5626667 -2.5468187 -2.0321331 15
4.8953733 -3.4994659 -2.0585611 46
6.8379273 -4.8880448 -2.0843775 16
46.194386 -35.886452 -0.17214133 12
8.0623322 -5.7632756 -2.1072004 14
8.9335222 -6.3860207 -2.1405058 43
9.2358837 -6.6021557 -1.9779404 66
9.4027081 -6.721405 -1.8426151 32
11.106113 -7.9390354 -1.932579 44
12.543025 -8.9661713 -1.909918 32
14.179771 -10.136152 -1.8503343 64
15.110672 -9.9922028 -1.8710268 11
12.120938 -7.4546638 -0.41894984 58
33.350754 -24.016327 -2.1822321 38
37.0061 -24.656828 -2.2312465 34
12.051476 -7.4119434 -0.66681725 63
46.404114 -41.794334 -2.7655761 23
46.317165 -38.761665 -2.4940073 62
46.37524 -36.026951 -2.2535262 76
46.414219 -33.423443 -2.0249207 86
46.432011 -30.937189 -1.8115046 87
12.084729 -7.3743792 -1.4191471 60
46.400532 -41.791111 -1.6588006 73
46.328426 -38.771091 -1.4243252 73
46.377373 -36.028606 -1.2133592 87
46.384121 -33.401772 -1.0102894 80
46.394852 -30.912432 -0.82186294 90
12.125359 -7.4573822 -0.16731149 57
46.394279 -41.78548 -0.55320424 81
46.309834 -38.755531 -0.35478708 48
46.383305 -33.15593 -1.0077436 79
46.326324 -41.432304 -2.7523019 37
46.304646 -38.477146 -2.4860842 71
46.380447 -35.772091 -2.2476964 74
46.42654 -33.186836 -2.0203912 68
46.429676 -30.702152 -1.8072202 87
12.163951 -7.4227214 -0.41953897 49
46.400085 -41.498272 -1.6535947 74
46.328156 -38.496681 -1.4201756 73
12.053401 -7.3552623 -0.66549826 56
46.389046 -30.675285 -0.81985724 87
12.15473 -7.4170942 -0.16735862 59
46.384823 -41.484623 -0.55136007 81
46.321781 -38.491386 -0.35384601 51
12.080246 -7.3716435 0.083636731 77
12.162436 -7.4217963 0.33642098 67
12.103521 -8.6520042 1.3169584 26
11.923083 -8.5230227 2.8577445 63
14.805165 -11.41896 -1.3795241 54
12.199283 -10.910634 -1.5942572 50
13.553198 -11.262224 -1.6625508 37
13.272797 -10.237086 -1.5336132 66
14.265564 -10.197478 -1.5513369 16
15.554618 -10.285766 -1.5956609 13
12.09053 -7.3779192 -1.1690557 80
12.563051 -11.235972 -1.3432504 39
13.564361 -11.2715 -1.3519905 37
8.0250673 -5.8217182 -2.1080325 15
14.74323 -10.538924 -1.2827524 30
17.589582 -11.631402 -1.4312838 24
11.89156 -7.256505 -0.90339011 64
28.160133 -25.185291 -2.3420615 41
29.452278 -24.473616 -2.2578855 41
28.875843 -22.271278 -2.0447907 91
32.846222 -23.47933 -2.1438363 37
37.128605 -24.551741 -2.2334521 47
46.328976 -42.020496 -2.7698238 36
15.231264 -11.049261 -1.3319089 21
18.084484 -12.140966 -1.4784287 26
12.074708 -7.4844489 -0.92125875 74
28.125565 -25.510014 -2.3539433 54
28.248703 -23.808842 -2.178292 69
28.681917 -22.442799 -2.0421031 71
33.476879 -24.285055 -2.1960211 31
36.880009 -24.759136 -2.2288408 27
12.100245 -7.5002775 -0.67096263 65
15.067532 -11.789993 -1.4116154 42
46.319096 -39.039009 -2.5014348 68
46.375122 -36.287144 -2.2596626 75
46.43317 -33.683849 -2.0308659 80
46.436596 -31.174845 -1.8159187 84
12.111835 -7.5074615 -0.41953897 37
46.417267 -42.100574 -1.664644 73
46.345695 -39.061428 -1.4290407 79
46.364712 -36.278999 -1.2163347 84
10.821874 -6.7079005 -1.2762747 32
28.763233 -22.344988 -2.0423269 91
7.3577523 -5.3376327 -2.0938201 14
8.8982563 -6.4551501 -2.142802 44
9.2756195 -6.7288985 -1.8268682 22
11.044006 -8.0117273 -1.9314575 31
12.476911 -9.0511885 -1.909426 35
14.02173 -10.171837 -1.8389308 65
11.717283 -7.866416 -1.4575293 37
35.757523 -29.924601 -2.7493389 14
12.119866 -10.992862 -1.5938694 38
13.376801 -11.274443 -1.6505249 48
13.015916 -10.184672 -1.512105 50
14.264977 -10.348294 -1.5590938 50
15.326913 -10.289701 -1.5796287 27
12.055671 -7.4726491 -1.1707015 54
14.011249 -12.708344 -1.5075905 26
12.933364 -10.900703 -1.2966349 68
15.349468 -10.227297 -1.5782642 51
9.3644037 -6.7435393 -1.4293878 36
14.134621 -10.178615 -1.8490673 30
11.747982 -7.8276734 -1.4579403 60
10.909636 -6.7096992 -1.2838573 25
12.184789 -10.974466 -1.5973605 47
13.388588 -11.204679 -1.6471425 73
13.148901 -10.214929 -1.5234058 51
14.281613 -10.284466 -1.5569782 47
46.396248 -31.147758 -0.82380956 87
12.091868 -7.4367852 -1.1716889 84
14.0496 -12.654021 -1.5069549 16
14.928813 -12.493649 -1.4923674 32
15.051888 -11.693272 -1.4063159 20
17.409386 -11.599792 -1.4199041 10
12.076961 -7.4276166 -0.91944599 78
28.060181 -25.272745 -2.3410714 63
46.383785 -33.648026 -1.0128353 86
9.3471336 -6.7311025 -1.8363162 29
9.3685312 -6.7465119 -1.6342489 29
46.387913 -28.752909 -0.64259201 95
46.384422 -42.070786 -0.55483562 82
46.327198 -39.045837 -0.35596344 50
12.123683 -7.5148048 0.084295481 63
12.117124 -7.5107393 0.3366096 55
11.981545 -8.6918402 1.3102592 32
11.374206 -8.2512617 1.9900141 26
3.5684767 -2.5698404 -2.0405529 17
4.8708434 -3.5076866 -2.0533812 83
6.8082213 -4.9028096 -2.0805256 16
7.3921547 -5.3233051 -2.0983102 14
8.0453396 -5.7936697 -2.1080325 14
8.9048052 -6.4125781 -2.1389751 44
9.1616173 -6.5975108 -1.9669534 71
11.856935 -8.6014442 2.8562136 71
46.364651 -35.651627 -1.033769 86
46.365089 -33.041531 -0.83932543 90
46.411888 -30.593849 -0.65451556 93
46.378025 -44.487514 -0.56941301 79
46.353352 -41.335773 -0.36490512 51
3.4924512 -2.666275 -2.0388703 17
4.7800326 -3.6492107 -2.0572677 66
6.6933641 -5.1098413 -2.0882308 17
7.2685256 -5.5489178 -2.1063943 14
7.9301963 -6.0540352 -2.121347 15
8.6349077 -6.5920095 -2.1175447 63
8.7890339 -6.7096691 -1.9264405 43
8.8007555 -6.718617 -1.7651418 37
8.8018923 -6.7194853 -1.5675186 29
8.8222256 -6.7350078 -1.3747946 35
8.8146992 -6.7292619 -1.1771116 28
14.318358 -10.128734 -1.8114287 32
41.847191 -40.141384 -2.5678813 28
16.760195 -11.944046 -1.3968751 12
17.64325 -11.630191 -1.3705648 34
28.047691 -26.90444 -2.4093933 45
28.264324 -25.204874 -2.2329257 61
36.076908 -29.890137 -2.6271482 37
28.954309 -22.264175 -1.9393423 88
32.855869 -23.414387 -2.0243433 41
37.3097 -24.593887 -2.106957 62
46.356075 -38.406502 -1.2437772 86
46.320633 -41.306599 -2.5628393 59
46.37495 -38.422138 -2.3110569 80
46.399899 -35.67873 -2.0722005 80
46.443378 -33.097321 -1.8516235 94
46.431686 -30.606901 -1.6384668 81
46.389454 -44.498478 -1.7075678 79
46.347233 -41.330318 -1.4641252 81
46.344517 -41.03838 -1.4595039 81
37.49229 -24.526936 -2.1124215 56
42.238789 -40.234852 -2.5832794 50
46.317917 -41.014828 -2.5547512 52
46.360619 -38.138138 -2.3036931 80
46.400238 -35.42194 -2.06668 82
43.611378 -30.850164 -1.7343873 59
46.407753 -30.359274 -1.6338716 81
46.38237 -44.181839 -1.7016182 80
32.748238 -23.165747 -2.0127149 49
46.353962 -38.132664 -1.2401403 85
46.368023 -35.39735 -1.0310819 86
46.369129 -32.800957 -0.83731979 88
46.411293 -30.361588 -0.65300763 92
46.35347 -44.154305 -0.56721413 80
46.341633 -41.035828 -0.36368173 50
3.5017366 -2.6540678 -2.0388703 17
15.046082 -12.377623 -1.4375253 38
11.96586 -11.398274 -1.6097747 22
12.498086 -11.06725 -1.5749888 56
13.664529 -11.241106 -1.6189184 45
13.615177 -10.393932 -1.5153744 95
14.442985 -10.216892 -1.5137957 35
11.852822 -7.7540517 -1.1690571 24
13.566657 -12.923119 -1.4932877 20
12.663178 -11.21344 -1.2966363 26
15.34766 -10.040313 -1.838587 36
14.953594 -11.415675 -1.3316278 40
17.16017 -12.138988 -1.4266793 27
17.540106 -11.47457 -1.3594292 75
27.678917 -26.365797 -2.3697872 57
28.304298 -25.063705 -2.2291579 71
36.40926 -29.951778 -2.643723 33
29.031851 -22.16297 -1.9393423 67
27.841619 -26.894011 -2.3997395 119
14.306556 -10.270988 -1.5069735 56
10.12145 -6.7227859 -1.0028387 29
13.215128 -12.765424 -1.4643612 13
12.516335 -11.240281 -1.2896022 25
27.557119 -22.994122 -2.6484537 20
14.917695 -11.553997 -1.335583 63
14.611169 -10.489674 -1.2207597 22
15.78044 -10.481472 -1.2286518 37
13.17057 -10.200838 -1.4737693 64
28.22073 -25.343401 -2.2364578 66
35.889561 -29.946808 -2.6211007 41
28.832205 -22.330872 -1.9363724 86
33.400272 -23.978588 -2.0630376 40
37.153732 -24.677553 -2.1030002 74
46.334198 -44.75708 -2.8528328 23
46.333755 -41.609566 -2.5715873 59
8.7547674 -6.7807708 -1.5675186 28
3.4737527 -2.6905923 -2.0388703 17
4.7305036 -3.6639538 -2.0469081 21
6.6790137 -5.1730871 -2.0949717 16
7.2511821 -5.6162348 -2.1126804 14
7.9001112 -6.1188345 -2.1246753 16
8.5172853 -6.5968394 -2.0999398 62
8.8198643 -6.8311887 -1.9436076 44
9.6811552 -7.4982643 -1.9522146 36
46.354099 -38.678535 -2.3167331 69
12.173899 -9.4289103 -1.9074601 17
13.085231 -10.134742 -1.7569965 17
14.218208 -10.207562 -1.8077295 42
11.766217 -7.8152356 -1.4159559 37
10.548781 -10.189842 -1.4286255 36
12.355335 -11.095696 -1.5667212 41
13.576546 -11.328574 -1.6178249 54
12.370214 -11.031297 -1.5637147 51
8.7905502 -6.7595243 -1.9319339 44
8.7521992 -6.7300348 -1.760103 37
8.7532663 -6.7308555 -1.5630325 32
8.7640467 -6.7391453 -1.3693844 38
8.7564697 -6.7333188 -1.1724658 31
14.234312 -10.144015 -1.8052633 72
15.319166 -10.098207 -1.8393853 50
10.564176 -10.133666 -1.4259102 39
8.5869455 -6.6029658 -2.1114213 63
13.671219 -11.326857 -1.6243867 50
13.288221 -10.217949 -1.4829364 46
14.293636 -10.186293 -1.5018568 58
10.184795 -6.7137413 -1.0067884 29
23.992779 -23.014832 -2.6500273 19
14.130145 -12.600716 -1.4513873 14
13.586671 -11.256807 -1.3018 27
46.394768 -30.815426 -0.65578789 92
46.395168 -35.933495 -2.0775795 82
46.428234 -33.331509 -1.855648 93
46.431145 -30.839586 -1.6422373 83
46.40065 -44.82127 -1.71373 80
46.330608 -41.606739 -1.4681803 81
46.375256 -38.696186 -1.2479097 81
46.36956 -35.913662 -1.0366684 89
46.382679 -33.298809 -0.84174401 86
14.910491 -11.465371 -1.3313453 30
46.354786 -44.77697 -0.57104439 83
46.357574 -41.630955 -0.36608145 52
3.4859993 -2.6806614 -2.0405545 17
4.7672658 -3.665874 -2.0572677 33
6.6908751 -5.1450076 -2.0930457 16
7.2645626 -5.5861368 -2.1108844 14
7.9245238 -6.093605 -2.1255074 16
7.9868889 -5.9659767 -2.119683 14
46.406937 -29.898197 -0.64999181 89
46.357399 -43.544823 -0.56352586 81
46.32568 -40.448219 -0.36132902 48
11.71978 -8.8181725 1.2982699 8
3.520179 -2.6295559 -2.0388703 15
4.8301115 -3.6080136 -2.0624475 79
6.7433944 -5.0371451 -2.0872681 17
7.3137412 -5.4631672 -2.102802 14
46.380432 -32.325497 -0.83342642 100
8.6782999 -6.4824276 -2.1114213 46
8.9251118 -6.6667848 -1.9408607 51
9.8168726 -7.3328881 -1.9534744 32
10.905688 -8.1461821 -1.9269729 10
12.393848 -9.2577677 -1.9163133 16
9.0280857 -6.7437015 -1.1961173 28
14.629785 -10.120846 -1.8373237 57
15.663217 -10.014107 -1.8637295 27
46.358757 -37.597023 -2.2904997 81
28.16785 -26.458921 -2.3957789 61
28.466557 -24.854986 -2.2282159 55
36.971085 -29.983637 -2.6692569 28
29.211405 -21.978962 -1.9410393 55
32.837063 -22.886299 -2.0083041 33
38.660183 -24.907288 -2.1683838 55
46.37207 -43.558601 -2.817435 26
46.329174 -40.451267 -2.5397305 61
11.60421 -10.82428 -1.5457712 80
46.403633 -34.914486 -2.055922 81
46.436474 -32.364555 -1.8377317 70
46.383297 -29.882967 -1.6256236 80
46.386581 -43.572235 -1.6905689 77
46.337704 -40.458717 -1.450356 81
46.355034 -37.594002 -1.2331148 88
46.371128 -34.89003 -1.0257074 87
46.352043 -37.324116 -1.2295607 69
42.333447 -39.48777 -2.5636337 52
46.346279 -40.181957 -2.532963 72
46.343395 -37.31715 -2.2832894 79
46.416332 -34.670956 -2.0511093 81
46.443954 -32.129482 -1.8335772 24
46.389629 -29.658417 -1.6222066 79
46.398045 -43.279125 -1.6854692 78
46.336643 -40.173599 -1.4459236 82
39.336002 -25.148823 -2.2013586 49
46.380489 -34.64418 -1.0232322 85
46.407467 -32.10424 -0.83189273 94
46.396435 -29.662769 -0.64838958 91
46.357021 -43.24086 -0.56168169 76
46.321522 -40.160492 -0.36019972 47
11.747296 -8.7748241 1.2979174 20
4.7957578 -3.6347888 -2.0585628 93
15.347229 -11.463803 -1.3559235 29
12.640375 -10.959243 -1.5783713 38
13.9087 -11.199825 -1.6338649 30
14.214874 -10.617988 -1.5696729 40
9.695075 -6.7070765 -1.00861 29
16.128365 -10.311489 -1.58016 44
12.619486 -11.771305 -1.3753569 39
14.862185 -12.885531 -1.5079663 39
15.003985 -12.081779 -1.4213325 39
6.7266302 -5.0981708 -2.0930457 16
15.415596 -10.66446 -1.2722396 40
17.494513 -11.184908 -1.34674 33
28.18997 -26.295074 -2.389838 69
28.595379 -24.792086 -2.2315125 47
37.2435 -29.98966 -2.6813519 21
29.319944 -21.900761 -1.9431605 58
29.499897 -20.407801 -1.7997954 14
36.739384 -30.008928 -2.6600738 29
13.469746 -12.741419 -1.477712 10
14.307622 -12.580769 -1.4605622 32
13.686552 -11.179345 -1.3038609 54
14.497281 -10.987443 -1.2875565 25
17.022802 -11.952879 -1.4117771 16
17.603487 -11.428487 -1.3612421 44
27.820089 -26.315657 -2.3739955 66
28.349636 -24.927837 -2.2258613 74
15.962364 -10.363055 -1.570944 20
29.134506 -22.080797 -1.9410393 45
32.786396 -23.021444 -2.0101085 46
37.842422 -24.567785 -2.1273069 35
42.352852 -40.062447 -2.5816865 45
46.340755 -40.747334 -2.5481486 69
46.363445 -37.869877 -2.2972498 82
46.402534 -35.168003 -2.061301 80
8.8698349 -6.722477 -1.1813351 27
11.935541 -7.6897163 -0.92074221 71
7.2692113 -5.5093861 -2.101006 14
7.945045 -6.0215907 -2.119683 17
8.7079287 -6.5997701 -2.1297915 56
8.8375254 -6.6979899 -1.9319339 49
8.8776712 -6.728416 -1.7758497 33
8.869483 -6.7222104 -1.5753694 29
8.8868093 -6.7353415 -1.3811886 34
16.691181 -11.633247 -1.3808893 20
14.431777 -10.133564 -1.8212935 72
15.499454 -10.06253 -1.8525552 23
10.892072 -10.303153 -1.4604332 28
12.572531 -11.055112 -1.5794986 72
13.904213 -11.35713 -1.642614 42
13.9721 -10.589415 -1.5509858 37
9.5697346 -6.7196321 -1.0004233 27
13.996243 -10.530995 -1.5495754 46
10.864528 -8.1746759 -1.9247298 38
12.339253 -9.2842684 -1.9128704 45
13.536945 -10.185418 -1.7983867 13
14.506232 -10.110425 -1.8262256 40
15.554559 -10.021299 -1.8549496 26
11.960994 -11.235415 -1.5985256 44
12.641042 -11.03735 -1.5832568 41
13.854052 -11.235762 -1.6320423 37
46.406136 -30.127424 -1.6301011 82
9.6356392 -6.7158113 -1.0048578 29
16.038654 -10.333181 -1.5748936 55
11.075777 -10.403909 -1.2110167 48
14.474627 -12.638296 -1.4731013 63
14.190239 -11.50841 -1.3480232 106
15.78218 -11.874743 -1.398017 46
43.705711 -30.688551 -1.7338679 57
8.9080849 -6.7026381 -1.9422342 51
9.7912169 -7.3671117 -1.9534744 32
46.411404 -43.901505 -1.6970497 81
46.337337 -40.744328 -1.4547886 85
46.350513 -37.85931 -1.2365036 80
46.373363 -35.145897 -1.0284653 88
46.378597 -32.565346 -0.83543205 94
46.412994 -30.131878 -0.65154684 95
46.36203 -43.854801 -0.56544095 83
3.5022817 -2.6352837 -2.0338185 16
4.81144 -3.6203015 -2.0598576 85
6.7505898 -5.0793276 -2.0949717 16
7.2977419 -5.4910078 -2.1037002 14
7.9597621 -5.9891152 -2.1180189 15
8.7309132 -6.5693331 -2.1297915 49
46.3344 -40.741745 -0.36250538 48
46.368668 -34.530827 -0.85230464 96
46.422821 -32.015537 -0.66398871 91
46.369392 -46.382492 -0.58111781 86
46.32983 -43.090172 -0.37175289 50
3.4585476 -2.7569227 -2.0523436 17
4.705524 -3.7508748 -2.0585642 18
6.6273904 -5.2827749 -2.1017137 17
7.1659679 -5.7120695 -2.1108859 15
7.8139124 -6.2285395 -2.1246767 22
8.2739162 -6.5952044 -2.0624352 62
8.6897335 -6.9266477 -1.9360554 40
9.535368 -7.6006947 -1.9440277 26
10.61656 -8.4625015 -1.9219273 40
12.031756 -9.5905399 -1.905986 49
12.793156 -10.197444 -1.7367253 42
13.792753 -10.196937 -1.77156 68
46.302876 -43.065102 -2.6112034 60
15.379622 -12.34713 -1.396041 34
14.672338 -10.926616 -1.2416241 24
15.447247 -10.653304 -1.2169999 51
28.259502 -26.283487 -2.2755497 65
28.790094 -24.887943 -2.133939 67
37.508385 -30.112417 -2.5541036 33
39.5163 -29.427879 -2.4722378 22
33.220966 -22.91091 -1.9027051 39
46.368824 -37.225704 -1.0510255 80
46.400757 -40.111599 -2.3537071 83
46.378197 -37.233231 -2.1056082 71
46.432648 -34.578472 -1.8796681 88
46.432232 -32.022026 -1.6617981 74
46.371822 -46.384922 -1.7423106 77
46.323608 -43.084385 -1.4915704 81
46.394753 -40.106411 -1.2670866 85
46.388767 -46.079052 -1.7368922 77
37.337963 -27.603582 -2.3298905 25
33.168854 -22.704531 -1.8951681 32
41.514492 -41.237335 -2.5912452 25
46.329605 -42.789326 -2.6042709 53
46.397942 -39.82703 -2.3464968 83
46.385971 -36.973938 -2.1000876 76
46.437336 -34.33062 -1.8749942 89
46.408451 -31.767155 -1.6569672 80
37.716347 -30.063467 -2.5611041 33
46.329773 -42.789482 -1.4869492 86
46.388809 -39.819191 -1.2631192 85
46.354622 -36.948948 -1.0477724 85
46.360279 -34.273651 -0.84994507 93
46.408875 -31.767445 -0.66219801 96
46.36359 -46.054047 -0.57902539 84
46.35067 -42.808781 -0.37071773 50
14.815452 -10.141459 -1.7998773 23
28.794971 -24.71706 -2.1278915 27
28.213205 -26.05735 -2.264482 73
27.653183 -27.468618 -2.416326 114
17.964605 -12.297081 -1.4120007 21
15.95872 -11.798205 -1.3470223 44
15.594233 -12.430155 -1.411579 14
14.771461 -12.679617 -1.4363492 34
12.217546 -11.284052 -1.2749237 57
11.697536 -11.619553 -1.314009 24
15.365583 -10.518027 -1.5370433 17
14.280333 -10.557397 -1.519596 46
12.712174 -10.132895 -1.4381593 57
11.975298 -10.279458 -1.4439375 35
12.088046 -11.164449 -1.5524418 72
11.588956 -11.511698 -1.591157 14
15.367353 -10.677552 -1.2136334 37
12.774508 -11.121312 -1.549656 40
14.004387 -11.323689 -1.5932976 44
14.078758 -10.561173 -1.5059515 44
14.934938 -10.377105 -1.5011665 34
11.158227 -11.239692 -1.2621955 48
12.610039 -11.810742 -1.3244684 42
14.766825 -12.855772 -1.4445927 40
13.853357 -11.201571 -1.2610023 16
11.998183 -11.237678 -1.5509386 48
28.026108 -28.230488 -2.4660814 68
28.225874 -26.436567 -2.2802596 90
28.588583 -24.888641 -2.1254277 80
37.253952 -30.122614 -2.5439215 36
39.365406 -29.529676 -2.4692304 27
33.3311 -23.158962 -1.9136337 39
40.518932 -40.81435 -2.5468211 36
46.333122 -43.395859 -2.6214373 47
10.405999 -10.481982 -1.4387124 68
14.662578 -10.187866 -1.7899002 23
8.9724236 -6.7307129 -1.1583015 30
12.601024 -10.188971 -1.7202537 62
11.927467 -9.6443529 -1.9000839 46
10.557222 -8.5364122 -1.9219273 30
9.463645 -7.6521773 -1.9402486 45
8.6687441 -7.0094433 -1.9422356 34
8.1482954 -6.5886245 -2.0425339 76
7.8097906 -6.3149185 -2.1354933 43
7.1471334 -5.7791133 -2.1171722 16
6.5994062 -5.336237 -2.1046026 17
4.7027674 -3.8026705 -2.0689237 17
3.4194679 -2.7650318 -2.040556 16
3.4539242 -2.7335749 -2.0439236 17
14.71771 -10.150181 -1.7922946 64
7.8348374 -6.2900686 -2.1363256 30
8.2202291 -6.5994668 -2.054781 59
8.7054491 -6.9890084 -1.9449823 30
8.4183617 -6.7585306 -1.7210521 13
10.617839 -8.5243025 -1.9275349 16
8.4104986 -6.7522182 -1.3359405 38
12.679937 -10.179784 -1.7261665 20
9.0277739 -6.7231174 -1.1624117 30
7.1611824 -5.7492485 -2.115376 16
10.560741 -10.563844 -1.4550041 33
12.063581 -11.220136 -1.5543209 59
14.034507 -11.267252 -1.59224 20
14.12193 -10.516728 -1.5066339 41
15.076083 -10.397332 -1.5116991 21
10.323476 -10.326511 -1.1636549 26
13.991657 -13.013383 -1.4648453 20
27.097301 -23.424597 -2.6431561 20
6.590745 -5.2912931 -2.0959361 17
4.7042069 -3.7767541 -2.0637438 17
3.4375861 -2.7598927 -2.0456078 17
46.354301 -43.415695 -0.37316453 48
46.370655 -46.708714 -0.58317477 80
46.402756 -32.241291 -0.66530812 94
46.366238 -34.781273 -0.85448724 95
46.356773 -37.482891 -1.0537127 80
46.384174 -40.381031 -1.2706407 87
46.339298 -43.401642 -1.496946 85
46.392742 -46.730961 -1.7492166 77
46.435093 -32.26376 -1.665922 81
46.410809 -34.814709 -1.8836929 89
46.375393 -37.497944 -2.1114118 74
46.381046 -40.378307 -2.3598435 78
7.2223158 -5.6343164 -2.1099877 15
46.359859 -36.426754 -1.0421151 86
46.365681 -33.779591 -0.84569782 90
46.38081 -31.274965 -0.65866381 99
46.369675 -45.42136 -0.57512432 81
46.337891 -42.201347 -0.36824739 52
3.472923 -2.7093952 -2.0439236 18
4.7445431 -3.7013929 -2.0585642 20
6.657856 -5.1939788 -2.0940101 16
46.384823 -39.256676 -1.2555152 85
7.869453 -6.1391516 -2.1221807 16
8.4601574 -6.5999641 -2.0915215 60
8.7338276 -6.8134556 -1.9298754 55
9.6518116 -7.5295796 -1.9515862 40
10.648386 -8.3070126 -1.9118334 26
12.128396 -9.4615765 -1.9054942 55
8.6277094 -6.7306724 -1.1614861 28
14.092219 -10.191841 -1.7962219 66
46.337635 -42.201118 -1.477707 82
46.400833 -45.451881 -1.725418 76
46.416939 -31.299328 -1.6494262 81
46.436768 -33.831379 -1.8653868 89
46.378933 -36.441742 -2.0881975 78
46.372803 -39.246502 -2.3313091 77
46.254902 -42.125767 -2.5834732 63
46.180489 -45.236046 -2.8627455 23
36.920925 -24.896116 -2.0996101 62
40.009575 -29.14889 -2.483866 22
28.738426 -22.580959 -1.9406164 79
35.469276 -30.018602 -2.6056476 42
28.285206 -25.760269 -2.2557693 69
27.735907 -27.168736 -2.40692 99
17.914328 -12.079869 -1.4013832 28
46.395832 -45.130722 -1.7193623 78
28.766684 -22.441196 -1.9372222 77
33.43615 -24.18165 -2.0704575 43
37.040806 -24.789307 -2.1014943 58
46.318668 -41.888992 -2.5788517 50
46.362637 -38.960957 -2.323945 80
46.389236 -36.188648 -2.0829601 78
46.444431 -33.589424 -1.8609726 92
46.426228 -31.0704 -1.6458914 85
35.656399 -29.963982 -2.6116948 39
46.330437 -41.899635 -1.472803 82
46.386868 -38.981319 -1.2518785 81
46.35429 -36.161388 -1.039145 87
46.373119 -33.537849 -0.84369212 94
46.409916 -31.059484 -0.65753287 93
46.373112 -45.10862 -0.57320917 82
46.363289 -41.929344 -0.36728281 52
4.7393618 -3.7508664 -2.0676289 17
28.191336 -25.495321 -2.2411692 81
27.74758 -26.991026 -2.3997412 61
17.170193 -11.491112 -1.3400084 25
16.049055 -11.607053 -1.3443128 23
15.1321 -11.804783 -1.3584675 24
13.431407 -11.287224 -1.294441 29
14.154241 -12.800708 -1.4630103 36
11.852869 -11.529782 -1.3178233 31
10.044917 -6.7225981 -0.99757385 29
14.296453 -10.339547 -1.5097039 60
13.109752 -10.227139 -1.4709499 48
13.491179 -11.337452 -1.612358 53
11.058293 -10.000851 -1.4066285 13
10.535981 -10.248807 -1.4317302 39
15.000222 -10.038883 -1.8094553 27
28.251026 -25.910124 -2.2602434 71
9.9087105 -6.7320738 -0.98868692 31
10.60822 -10.464199 -1.1874955 33
13.982231 -12.82373 -1.454447 34
26.807812 -22.849285 -2.599288 17
